ncols 178
nrows 29
xllcorner 510542.338426
yllcorner 5270036.27268
cellsize 30.0
nodata_value -9999.0
150.320068359375 149.9517059326172 149.9536895751953 149.96905517578125 150.49122619628906 150.70242309570312 151.36642456054688 151.7421112060547 152.4302978515625 153.11688232421875 153.63719177246094 153.58779907226562 153.14727783203125 152.79737854003906 152.83412170410156 151.99423217773438 151.00369262695312 149.8518829345703 148.34498596191406 147.59954833984375 144.20089721679688 142.5883026123047 140.57290649414062 139.90811157226562 139.2442626953125 138.59463500976562 138.1576690673828 137.2480010986328 136.70883178710938 135.54766845703125 134.5167694091797 132.49107360839844 130.16827392578125 129.07998657226562 128.38656616210938 128.06175231933594 127.71674346923828 127.50629425048828 127.51219940185547 127.2314453125 126.503542582194 128.0129852294922 129.39111328125 129.75267028808594 129.54786682128906 129.7080535888672 130.19981384277344 130.8434295654297 130.79653930664062 131.11676025390625 132.18374633789062 133.9039306640625 136.4259796142578 137.02345275878906 139.85231018066406 141.78211975097656 143.89889526367188 144.59695434570312 144.59764099121094 142.79632568359375 141.55615234375 138.62823486328125 137.37347412109375 135.16958618164062 133.66856384277344 132.44247436523438 130.9893035888672 130.49432373046875 129.23199462890625 128.42086791992188 127.84735107421875 128.07933044433594 128.32962036132812 128.41635131835938 128.18194580078125 128.78648376464844 129.15328979492188 130.2119140625 134.9321746826172 139.05877685546875 143.20582580566406 146.31024169921875 151.38580322265625 153.0897674560547 157.78240966796875 160.48558044433594 166.1374969482422 172.54510498046875 175.28868103027344 180.65994262695312 182.04873657226562 182.34739685058594 183.3155059814453 186.26211547851562 188.9313507080078 190.8102569580078 194.7606964111328 196.9192657470703 200.1815185546875 202.42828369140625 209.83035278320312 212.9092254638672 220.61097717285156 224.45486450195312 232.8453826904297 239.95811462402344 246.0868377685547 255.3826141357422 258.5250549316406 264.14605712890625 264.7151184082031 264.59515380859375 269.2995300292969 272.6697998046875 269.0671081542969 263.89404296875 252.90594482421875 248.77603149414062 240.57554626464844 233.7734375 230.49342346191406 226.9644012451172 226.2655792236328 230.28750610351562 231.8514862060547 245.6631317138672 250.8901824951172 255.7938995361328 261.391845703125 264.7464904785156 277.092529296875 281.3620300292969 286.952392578125 289.89154052734375 291.7898864746094 289.31964111328125 288.59527587890625 292.30511474609375 293.82623291015625 297.0514221191406 299.9859924316406 305.8776550292969 316.9820251464844 324.7294921875 338.04754638671875 343.53021240234375 353.70892333984375 357.2580871582031 359.9390563964844 361.86956787109375 361.5987548828125 356.87066650390625 349.5794982910156 345.40985107421875 343.9971008300781 340.8917541503906 339.58050537109375 334.65985107421875 331.29278564453125 324.7611083984375 322.7308044433594 322.5496520996094 321.4693298339844 320.6455383300781 317.9614562988281 315.2197570800781 309.67828369140625 304.6669921875 299.7581481933594 292.55596923828125 290.6590270996094 287.7939453125 285.8742980957031 279.7721862792969 273.9617614746094 270.3626403808594 264.99908447265625 261.1455383300781
149.46517944335938 149.15664672851562 148.83380126953125 148.87710571289062 149.57904052734375 149.95285034179688 150.52540588378906 150.81185913085938 151.86668395996094 152.86917114257812 153.31690979003906 152.58514404296875 152.19618225097656 151.501220703125 151.3672637939453 149.86488342285156 148.74478149414062 147.9119873046875 146.86489868164062 145.8769989013672 142.9333038330078 141.59371948242188 139.8757781982422 139.1063690185547 138.4051055908203 137.5712127685547 137.1482696533203 136.2161102294922 135.64437866210938 134.25894165039062 132.50271606445312 129.90113830566406 128.78857421875 128.5272216796875 128.0114288330078 127.521240234375 127.310791015625 127.17336654663086 127.03594207763672 126.76974232991536 129.54861450195312 129.93128967285156 130.130615234375 130.25721740722656 130.05982971191406 130.6494598388672 131.04586791992188 131.9313507080078 132.3330078125 133.2894287109375 133.97161865234375 134.57827758789062 137.75033569335938 139.24215698242188 140.34872436523438 141.42420959472656 145.9119415283203 146.6124267578125 145.90200805664062 144.15054321289062 142.98873901367188 140.12913513183594 138.81495666503906 136.5116424560547 134.90602111816406 133.69158935546875 132.17152404785156 131.70477294921875 130.2460479736328 129.33547973632812 128.82418823242188 129.70204162597656 130.56442260742188 130.50167846679688 129.7359619140625 129.90353393554688 132.10897827148438 136.00485229492188 140.6988067626953 145.20138549804688 149.38890075683594 150.90621948242188 156.26217651367188 159.4841766357422 164.0051727294922 168.09823608398438 172.00894165039062 176.2261962890625 179.0962371826172 184.5874481201172 185.81300354003906 187.18490600585938 188.78475952148438 193.017578125 195.67869567871094 196.51019287109375 200.4735565185547 202.1648406982422 206.6739959716797 209.42283630371094 214.85455322265625 220.08712768554688 227.01235961914062 231.6444091796875 241.474365234375 248.1081085205078 254.6517791748047 264.5475158691406 267.56097412109375 272.57098388671875 273.4494934082031 275.0298156738281 276.7764587402344 276.5107727050781 268.8393859863281 263.00433349609375 254.2775421142578 249.97938537597656 242.333740234375 236.3562774658203 232.6142120361328 228.91018676757812 228.42431640625 231.65589904785156 234.7005157470703 242.7743377685547 248.02703857421875 254.50167846679688 262.9903259277344 267.46942138671875 278.6831970214844 282.51910400390625 288.3151550292969 291.9598693847656 294.240478515625 293.0325622558594 292.7599792480469 295.6626892089844 296.80010986328125 300.4307556152344 304.86102294921875 311.9198303222656 324.00103759765625 330.63189697265625 343.2521057128906 347.65093994140625 356.2342529296875 359.2774658203125 362.6524353027344 366.6101989746094 366.5643005371094 361.88092041015625 356.0216064453125 350.5610046386719 348.1320495605469 343.3822937011719 341.3605041503906 335.4814453125 332.79071044921875 327.2973327636719 325.1039733886719 325.09857177734375 323.0994873046875 321.9719543457031 318.1338806152344 314.5301818847656 307.09405517578125 303.49639892578125 300.09173583984375 300.4025573730469 299.705322265625 294.0948791503906 290.473388671875 283.03564453125 278.96051025390625 278.0135498046875 272.0684509277344 266.61553955078125
148.96682739257812 148.33489990234375 148.0276336669922 147.8550567626953 148.57594299316406 148.92994689941406 149.7827606201172 150.0877685546875 150.73675537109375 151.34190368652344 151.1573028564453 150.95962524414062 150.76583862304688 150.40078735351562 150.13270568847656 148.52508544921875 147.0998992919922 146.05422973632812 144.756591796875 143.91384887695312 141.5736846923828 140.63934326171875 139.0580596923828 138.17864990234375 137.47787475585938 136.76596069335938 136.3526611328125 135.26698303222656 134.74339294433594 133.1282196044922 130.5160675048828 129.05348205566406 129.09918212890625 129.14825439453125 127.81592559814453 128.9279022216797 129.6308135986328 129.44175720214844 129.15724182128906 129.67361450195312 130.1262664794922 130.8570556640625 131.0126953125 131.11949157714844 131.2216033935547 131.55499267578125 132.01370239257812 132.9233856201172 133.37518310546875 134.4099578857422 135.33445739746094 136.75933837890625 140.2740478515625 141.7467498779297 143.11737060546875 144.17938232421875 147.41603088378906 148.14894104003906 147.25416564941406 145.9729766845703 144.8619384765625 141.4462890625 140.04885864257812 137.48800659179688 135.73313903808594 134.44436645507812 133.13113403320312 133.0951690673828 132.09434509277344 131.06845092773438 131.16940307617188 133.1665496826172 134.4586639404297 134.45675659179688 133.72329711914062 133.8565216064453 136.18638610839844 143.5751495361328 147.64727783203125 151.0357208251953 154.4060821533203 156.2659149169922 161.88575744628906 164.5914764404297 169.97598266601562 172.81427001953125 177.52706909179688 182.0060272216797 184.96609497070312 188.01739501953125 189.2243194580078 191.8868408203125 193.66014099121094 197.22813415527344 200.33749389648438 201.74147033691406 205.93199157714844 207.22874450683594 211.98333740234375 215.29080200195312 223.68661499023438 227.220458984375 236.5992889404297 242.04244995117188 252.5005645751953 260.6335144042969 268.5369873046875 273.7389831542969 275.2369384765625 278.6305847167969 279.4473876953125 280.4766845703125 279.5777282714844 276.3400573730469 268.8748474121094 262.94775390625 256.78399658203125 252.42315673828125 244.79052734375 238.65652465820312 234.99351501464844 230.64830017089844 231.26942443847656 234.56883239746094 240.28500366210938 245.67408752441406 248.16110229492188 253.83917236328125 265.26385498046875 270.0343322753906 280.7196044921875 283.75579833984375 288.5764465332031 292.6929626464844 293.945068359375 293.1893615722656 294.8676452636719 298.3540344238281 299.28607177734375 305.0853271484375 309.58941650390625 317.06280517578125 328.629150390625 333.7638244628906 346.2479248046875 351.1128234863281 358.3536071777344 361.7000427246094 366.01605224609375 370.81109619140625 371.24261474609375 367.365234375 361.3769226074219 355.3426513671875 352.1674499511719 345.7245178222656 342.3374938964844 336.7593078613281 333.53814697265625 329.6229248046875 329.160888671875 328.2115173339844 324.77374267578125 323.3085021972656 317.7692565917969 315.246337890625 311.1339111328125 308.32073974609375 309.2381591796875 307.45220947265625 305.2830810546875 298.1269226074219 294.1455383300781 286.9623718261719 286.0990295410156 284.974365234375 276.5523681640625 270.38018798828125
148.3561553955078 147.65992736816406 147.32711791992188 147.1419677734375 148.14599609375 148.63214111328125 149.19491577148438 149.27818298339844 149.24545288085938 149.02732849121094 148.99012756347656 148.82232666015625 148.5387725830078 148.9512176513672 149.08392333984375 148.1268768310547 146.82276916503906 144.94708251953125 142.70718383789062 141.98016357421875 140.15538024902344 139.29881286621094 137.63743591308594 136.85400390625 136.55860900878906 135.95462036132812 135.46640014648438 134.36412048339844 133.9351806640625 132.23036193847656 130.69219970703125 129.59725952148438 129.4633331298828 129.60382080078125 128.7323989868164 129.2720489501953 130.1433868408203 130.19480895996094 130.34637451171875 130.70123291015625 130.9453887939453 131.4949188232422 131.78504943847656 132.24285888671875 132.39578247070312 132.87814331054688 133.20094299316406 133.63511657714844 133.9595489501953 135.00909423828125 137.0255126953125 139.27706909179688 142.6109619140625 143.9611358642578 146.12298583984375 146.80897521972656 148.7589111328125 149.58518981933594 149.2906036376953 147.7788848876953 146.95579528808594 143.30955505371094 141.08155822753906 138.37721252441406 136.54141235351562 134.99273681640625 133.9699249267578 134.33387756347656 134.7699432373047 135.0449981689453 135.71267700195312 136.8155975341797 137.60025024414062 138.02671813964844 137.94593811035156 140.81349182128906 144.33059692382812 149.75381469726562 153.2690887451172 156.753173828125 160.894287109375 163.21986389160156 170.47958374023438 171.03146362304688 173.88705444335938 176.84005737304688 180.95774841308594 185.95538330078125 187.79745483398438 191.19786071777344 192.9108428955078 196.53265380859375 197.62008666992188 199.59007263183594 203.5546112060547 206.2952117919922 210.42257690429688 212.02035522460938 218.11878967285156 223.0924072265625 231.3008270263672 234.88804626464844 246.23858642578125 253.99661254882812 264.5880432128906 273.0445251464844 275.88812255859375 281.28961181640625 282.1766357421875 283.61224365234375 285.3709716796875 284.6971740722656 280.684326171875 277.2837219238281 269.8855285644531 266.6679382324219 259.5965270996094 255.56320190429688 247.21026611328125 241.43902587890625 237.71876525878906 232.98118591308594 233.3916473388672 238.55410766601562 243.06199645996094 247.7533721923828 250.9342498779297 255.4094696044922 266.7405090332031 271.9493713378906 282.67901611328125 284.9997253417969 289.18023681640625 291.6315612792969 292.218017578125 294.112060546875 297.6651306152344 304.8864440917969 304.95220947265625 309.21978759765625 313.57269287109375 320.86627197265625 331.5354919433594 337.5668029785156 348.8751220703125 353.59429931640625 360.07196044921875 364.68402099609375 370.1647033691406 375.6251525878906 376.3721008300781 372.7403869628906 365.8011779785156 358.90850830078125 353.8559875488281 345.86309814453125 342.67864990234375 336.7114562988281 334.5425109863281 332.6388244628906 332.33038330078125 331.48248291015625 327.7469482421875 325.7169189453125 321.8795166015625 319.9793701171875 316.2742919921875 314.8121337890625 315.69866943359375 312.7441711425781 309.645263671875 301.1133117675781 296.8070068359375 292.2752990722656 292.03790283203125 289.4942321777344 279.0029602050781 274.41851806640625
147.6894989013672 147.0852813720703 146.627685546875 146.78074645996094 147.7546844482422 148.04159545898438 148.806396484375 148.78317260742188 148.40687561035156 148.01132202148438 147.8892059326172 147.31280517578125 146.86471557617188 147.8472900390625 148.5994873046875 147.81988525390625 146.35569763183594 143.903564453125 140.85092163085938 140.23635864257812 138.50804138183594 137.57785034179688 135.9886932373047 135.56101989746094 135.39346313476562 134.99237060546875 134.60595703125 133.5572967529297 133.1432647705078 131.77210998535156 131.0122528076172 130.34938049316406 129.7926788330078 129.4063720703125 128.78427124023438 129.45501708984375 130.58416748046875 131.01438903808594 131.4091033935547 131.7604217529297 132.04808044433594 132.4291534423828 132.55332946777344 133.0380096435547 133.45358276367188 134.1143341064453 134.20582580566406 134.42800903320312 134.67918395996094 136.10894775390625 139.2364044189453 141.61602783203125 145.25624084472656 146.85719299316406 148.840576171875 149.40066528320312 150.91192626953125 152.21832275390625 152.46615600585938 150.39480590820312 149.6157989501953 145.8262481689453 141.18051147460938 139.2576141357422 137.62594604492188 135.94398498535156 135.29884338378906 135.95953369140625 137.73805236816406 138.1219482421875 139.08062744140625 139.92918395996094 140.505126953125 141.45545959472656 142.3338623046875 147.3191680908203 149.48484802246094 154.4321746826172 158.66033935546875 161.89129638671875 165.85086059570312 168.89056396484375 173.8157501220703 172.1595458984375 176.5981903076172 181.08851623535156 184.82151794433594 189.93467712402344 191.44313049316406 193.6005401611328 195.68173217773438 199.3387451171875 201.0590362548828 203.86334228515625 207.32720947265625 210.05148315429688 214.22561645507812 216.4716796875 224.8011474609375 229.12696838378906 236.84231567382812 241.1033172607422 255.8303680419922 264.61297607421875 274.6739501953125 281.6798095703125 284.5794982910156 287.1383056640625 286.8860778808594 290.33740234375 291.5263366699219 288.2830810546875 283.28009033203125 280.3619079589844 273.02508544921875 268.8787536621094 263.2543029785156 258.88629150390625 250.19061279296875 243.78077697753906 240.51834106445312 236.32986450195312 234.85055541992188 239.6299285888672 243.9326934814453 246.88658142089844 252.53713989257812 258.8420104980469 265.80712890625 270.8724670410156 280.8853454589844 283.91107177734375 288.4900817871094 287.6396789550781 290.1933288574219 296.9995422363281 300.3211364746094 307.4116516113281 309.3924560546875 313.8737487792969 318.1219482421875 325.0391540527344 335.1361389160156 340.2366638183594 350.5418701171875 352.9608154296875 362.3977355957031 368.65155029296875 374.49554443359375 380.33575439453125 381.17486572265625 375.776123046875 368.7147216796875 360.8161926269531 354.6833801269531 345.5227966308594 342.3147888183594 335.8165283203125 335.44378662109375 335.9482421875 335.41583251953125 334.4155578613281 331.6231994628906 330.6318359375 326.25555419921875 323.69354248046875 320.1639099121094 320.1312561035156 320.0680847167969 315.6979675292969 312.46917724609375 303.2611083984375 299.6240539550781 298.25701904296875 297.2161560058594 292.6016540527344 281.08721923828125 278.13043212890625
147.27220153808594 146.54598999023438 146.1346893310547 146.3756561279297 147.17489624023438 147.46212768554688 148.0291290283203 148.2266845703125 147.77511596679688 147.3216094970703 146.50108337402344 145.6762237548828 145.42112731933594 147.38302612304688 148.20632934570312 147.56336975097656 145.58238220214844 143.0386962890625 140.10279846191406 139.0259552001953 136.8215789794922 135.98162841796875 134.84300231933594 134.5772705078125 134.4450225830078 134.0919647216797 133.81265258789062 132.7934112548828 132.17286682128906 131.21255493164062 130.68946838378906 129.89199829101562 129.13539123535156 128.8880157470703 128.83614349365234 130.07615661621094 131.16285705566406 131.70484924316406 132.29147338867188 133.0021514892578 133.37158203125 133.8006134033203 133.6257781982422 133.7686004638672 134.55538940429688 135.45187377929688 135.4373016357422 135.60540771484375 135.7840576171875 138.32847595214844 141.43466186523438 143.5288543701172 147.1146697998047 149.04754638671875 152.1672821044922 152.36962890625 153.13182067871094 154.20077514648438 154.44070434570312 152.11801147460938 150.88742065429688 145.86842346191406 140.98846435546875 141.01553344726562 140.0587921142578 139.29981994628906 139.7946014404297 141.0064697265625 141.46011352539062 141.84994506835938 142.55316162109375 143.4273681640625 144.37173461914062 146.45713806152344 147.98658752441406 151.34339904785156 152.8433837890625 159.25392150878906 162.91177368164062 165.9009246826172 170.81968688964844 172.72933959960938 175.0597686767578 176.0341339111328 180.60284423828125 184.46588134765625 187.16775512695312 191.0751495361328 192.93170166015625 195.79702758789062 197.560546875 201.92538452148438 204.2034912109375 208.5537109375 212.3197021484375 213.32110595703125 219.31776428222656 222.4912109375 229.7017822265625 233.27740478515625 241.82122802734375 247.44577026367188 265.4449157714844 274.6819152832031 283.3190002441406 287.4496765136719 290.2118835449219 292.1954345703125 292.7822265625 295.82366943359375 295.4841003417969 290.3918151855469 286.0453796386719 282.1244812011719 276.1886901855469 271.9215087890625 265.31524658203125 261.91717529296875 253.80384826660156 246.93695068359375 242.61322021484375 237.75381469726562 236.74295043945312 239.8809356689453 242.85081481933594 246.10256958007812 255.3625030517578 261.41021728515625 268.704833984375 272.0947265625 281.8204040527344 283.91412353515625 287.2584533691406 286.72283935546875 290.74755859375 298.8313903808594 302.897705078125 308.2044982910156 310.1201477050781 317.08245849609375 322.2030029296875 328.7835693359375 340.0791015625 342.57928466796875 348.62091064453125 354.1637268066406 365.73602294921875 371.8625183105469 378.1922302246094 384.5233459472656 386.2569580078125 380.2442932128906 372.0487060546875 362.13385009765625 357.11529541015625 346.0610046386719 342.3173522949219 338.43963623046875 339.4444274902344 340.0002746582031 339.3589172363281 338.5757141113281 337.69366455078125 336.1162109375 329.904296875 326.27880859375 324.1449890136719 324.4252014160156 323.2591552734375 317.203369140625 313.87591552734375 305.86566162109375 304.6323547363281 303.3051452636719 301.1883239746094 295.534912109375 284.8406066894531 282.05548095703125
146.5194854736328 145.9364776611328 145.62667846679688 145.7255401611328 146.31723022460938 146.523681640625 147.5763702392578 147.65057373046875 146.92245483398438 145.95689392089844 144.75738525390625 143.04974365234375 142.65919494628906 145.25022888183594 147.01991271972656 146.510498046875 144.14085388183594 141.97531127929688 139.08438110351562 137.74395751953125 135.65492248535156 134.98574829101562 134.21115112304688 133.8988800048828 133.6403045654297 133.22628784179688 132.94589233398438 131.86964416503906 131.4741973876953 130.70108032226562 130.08851623535156 129.39813232421875 128.93988800048828 129.93194580078125 130.6844024658203 131.01296997070312 132.01065063476562 132.60354614257812 133.0590362548828 133.8933868408203 134.298583984375 135.3091278076172 135.56727600097656 134.48533630371094 135.31674194335938 136.6685028076172 137.01243591308594 138.75363159179688 139.43878173828125 140.5345458984375 142.59808349609375 144.8818359375 148.663330078125 151.00692749023438 155.04518127441406 155.0670928955078 155.0489044189453 155.4789276123047 155.26345825195312 152.4237518310547 151.6995849609375 146.7433624267578 144.43557739257812 143.38580322265625 142.59991455078125 142.19322204589844 143.15374755859375 143.7030029296875 144.6147918701172 145.18409729003906 146.22491455078125 147.0496826171875 148.25311279296875 150.65536499023438 151.938720703125 155.4313507080078 158.0936279296875 163.67318725585938 167.0067596435547 170.39337158203125 173.63543701171875 174.7523956298828 177.06369018554688 178.49520874023438 184.58787536621094 187.84226989746094 189.9954376220703 192.8662567138672 194.50051879882812 199.2241973876953 201.56906127929688 205.62869262695312 209.07635498046875 213.83465576171875 217.682861328125 218.5936737060547 223.31893920898438 227.14910888671875 234.9425048828125 239.45216369628906 248.83016967773438 259.5028381347656 276.81915283203125 283.9376525878906 289.3407287597656 293.9005432128906 295.7262268066406 297.6083679199219 299.0233154296875 299.7212829589844 297.6098327636719 292.70538330078125 287.2109375 282.3275451660156 277.46539306640625 275.2459716796875 267.23388671875 264.3280944824219 256.5209045410156 249.14251708984375 243.44862365722656 236.8921661376953 236.87059020996094 239.42483520507812 240.70277404785156 246.87928771972656 254.69955444335938 260.5135192871094 268.9842834472656 274.2109069824219 282.4100646972656 283.8004150390625 284.86920166015625 287.08306884765625 290.5966491699219 296.9219970703125 299.59857177734375 306.2839660644531 309.8260803222656 317.595947265625 324.0745849609375 332.8253173828125 344.0115051269531 346.50579833984375 351.8807678222656 357.0897521972656 368.2603454589844 374.3731689453125 381.4379577636719 389.8314514160156 391.6935119628906 383.8329162597656 375.5287780761719 365.2257995605469 358.61065673828125 346.5062561035156 341.82073974609375 345.14990234375 346.54736328125 346.0435791015625 345.1199035644531 345.3514404296875 344.42120361328125 341.57598876953125 332.7552795410156 329.4881286621094 328.4051818847656 327.8407287597656 326.03619384765625 319.6483154296875 317.6707763671875 313.0958251953125 311.4672546386719 307.8846740722656 303.5843200683594 298.3414611816406 288.78106689453125 285.4374084472656
145.6838836669922 145.23507690429688 144.9024200439453 144.86294555664062 145.23370361328125 145.40536499023438 146.34375 146.27719116210938 145.33563232421875 144.09707641601562 142.8129425048828 140.98175048828125 140.6342315673828 142.10104370117188 143.18310546875 143.22866821289062 141.90509033203125 140.28744506835938 137.48756408691406 136.4230499267578 134.80905151367188 134.3912353515625 133.64071655273438 133.32467651367188 132.9547119140625 132.42266845703125 132.01283264160156 131.28115844726562 130.98802185058594 130.1564483642578 129.20262908935547 129.07125854492188 130.1812744140625 130.57020568847656 131.69097900390625 132.22622680664062 132.9934539794922 133.30389404296875 133.70553588867188 134.4716339111328 134.97190856933594 135.97349548339844 136.14442443847656 134.90042114257812 135.75726318359375 137.86349487304688 139.24984741210938 141.804931640625 142.11886596679688 142.4665069580078 145.1691436767578 146.96974182128906 151.19757080078125 152.95712280273438 156.63919067382812 157.29800415039062 158.02076721191406 158.02926635742188 156.58802795410156 154.4503936767578 153.2597198486328 147.3400421142578 146.52938842773438 146.3279266357422 146.0198974609375 145.85931396484375 146.4617462158203 146.90145874023438 147.19627380371094 148.04205322265625 149.33651733398438 150.4106903076172 151.87892150878906 154.5724639892578 155.71250915527344 159.91856384277344 162.77383422851562 167.8738250732422 171.08139038085938 173.47865295410156 175.6814422607422 176.40184020996094 179.03089904785156 180.77833557128906 186.8961944580078 191.34228515625 193.016357421875 195.56678771972656 196.7228546142578 201.96014404296875 204.75375366210938 209.8938446044922 214.270263671875 219.7897491455078 222.6552734375 223.3106689453125 228.81614685058594 232.5922393798828 239.80523681640625 245.04847717285156 259.1719970703125 264.7459716796875 285.23907470703125 290.5059814453125 294.4361267089844 297.21673583984375 298.7149963378906 302.1490783691406 303.298095703125 301.6678161621094 298.94342041015625 293.44476318359375 287.1161193847656 282.1597595214844 278.4841613769531 276.98760986328125 268.2763671875 265.7269592285156 259.722900390625 250.84730529785156 245.413818359375 237.3821258544922 236.95010375976562 237.76101684570312 240.4049835205078 249.1258087158203 255.649169921875 261.15252685546875 267.8037109375 272.3655700683594 281.9358825683594 282.2839660644531 282.9915771484375 288.0560302734375 290.2308654785156 293.842529296875 297.839599609375 304.4996643066406 307.87530517578125 317.79949951171875 324.06390380859375 331.199951171875 341.7501220703125 347.6221008300781 355.0980224609375 360.7256164550781 370.863037109375 377.26495361328125 383.9947204589844 393.2106018066406 393.2239990234375 384.7596435546875 377.29376220703125 367.3067626953125 359.7998046875 347.1173095703125 346.5124816894531 353.5790710449219 354.745361328125 355.3314208984375 355.681884765625 355.4495849609375 352.20843505859375 346.866943359375 337.0739440917969 335.26324462890625 334.15313720703125 332.5596008300781 330.02777099609375 324.02777099609375 322.306396484375 317.377685546875 314.4717712402344 309.96405029296875 304.3263854980469 299.7789611816406 291.5428466796875 287.56683349609375
144.79881286621094 144.4069061279297 144.07179260253906 143.91177368164062 144.01458740234375 144.08175659179688 144.3059844970703 144.08245849609375 143.32289123535156 142.2572021484375 141.2255859375 139.5965576171875 139.26625061035156 139.88665771484375 140.30023193359375 140.50360107421875 139.88778686523438 138.41665649414062 135.81857299804688 135.23251342773438 134.13951110839844 133.81057739257812 133.14358520507812 132.76571655273438 132.35690307617188 131.76177978515625 131.44920349121094 130.79769897460938 130.51483154296875 129.73240661621094 129.36976623535156 130.02627563476562 130.93890380859375 131.4838409423828 132.87440490722656 133.35787963867188 133.9125213623047 134.05575561523438 134.3719024658203 135.0315704345703 135.5802764892578 136.64076232910156 136.5056915283203 135.52468872070312 136.21084594726562 138.5353546142578 139.92654418945312 142.49600219726562 143.38125610351562 144.6549835205078 146.95901489257812 149.5235137939453 154.2139434814453 155.4781036376953 159.08937072753906 159.27859497070312 159.8448028564453 159.50991821289062 157.73385620117188 154.88665771484375 153.41014099121094 149.78207397460938 149.10989379882812 148.79296875 148.64772033691406 148.6059112548828 149.0299530029297 149.4154052734375 150.0601806640625 150.62803649902344 151.67710876464844 153.0098419189453 154.6406707763672 157.27243041992188 158.62612915039062 164.47406005859375 167.2010955810547 171.91207885742188 174.51258850097656 176.2987060546875 178.08462524414062 177.4364776611328 181.3222198486328 182.991455078125 189.52476501464844 192.8787384033203 195.04505920410156 198.5511016845703 200.45286560058594 205.52330017089844 207.32533264160156 214.26878356933594 219.3158721923828 223.32940673828125 227.23431396484375 227.58004760742188 233.81173706054688 236.62832641601562 246.02301025390625 251.45802307128906 265.8555908203125 272.41949462890625 291.5284118652344 295.2357482910156 297.7283630371094 300.2496643066406 302.4249572753906 306.74871826171875 307.1914978027344 303.17437744140625 299.2535400390625 293.8162536621094 288.4826354980469 285.0461730957031 279.6148681640625 276.95208740234375 269.0794982910156 266.3921203613281 260.1734619140625 253.53408813476562 247.7176513671875 239.69064331054688 239.02426147460938 238.79513549804688 241.1356201171875 248.45590209960938 257.11724853515625 262.55303955078125 266.70294189453125 270.3868713378906 275.3466796875 274.3380432128906 282.0256042480469 286.7687683105469 288.90020751953125 294.2832946777344 298.40631103515625 307.1877746582031 311.64508056640625 319.6736755371094 326.7362976074219 334.2362365722656 345.7493591308594 350.3038024902344 358.91766357421875 366.0879211425781 372.5920715332031 378.3094482421875 384.36920166015625 390.7773742675781 389.9963684082031 382.9779968261719 376.8117980957031 366.90936279296875 358.8646240234375 348.09393310546875 353.2763366699219 362.2052307128906 364.8668518066406 367.0570068359375 367.693603515625 366.3555603027344 358.7934875488281 353.1566467285156 344.9893798828125 344.00390625 342.2928161621094 339.6703186035156 336.15850830078125 328.9161376953125 325.1199645996094 317.5228271484375 314.5553894042969 309.2425537109375 303.9730529785156 299.5609130859375 294.20965576171875 290.70159912109375
143.78085327148438 143.57785034179688 143.2533416748047 142.95730590820312 142.7635955810547 142.72137451171875 142.4852752685547 142.16722106933594 141.2318572998047 140.34739685058594 139.4526824951172 138.02218627929688 137.67901611328125 137.8992462158203 138.0438690185547 138.25332641601562 137.9494171142578 136.83560180664062 134.90467834472656 134.47537231445312 133.57357788085938 133.20745849609375 132.62399291992188 132.21522521972656 131.82888793945312 131.2682342529297 130.95802307128906 130.31907653808594 130.05337524414062 129.53690338134766 129.95443725585938 130.63832092285156 131.82655334472656 132.53724670410156 134.07278442382812 134.62619018554688 134.97544860839844 135.00204467773438 135.18275451660156 136.10218811035156 136.96353149414062 138.8686981201172 138.4221649169922 136.35357666015625 136.6427764892578 138.84765625 140.06591796875 142.73944091796875 144.2129669189453 145.6845245361328 146.81063842773438 149.35226440429688 154.5832977294922 156.5289764404297 160.48358154296875 160.3923797607422 160.50439453125 159.74160766601562 158.27015686035156 155.53726196289062 154.53868103027344 152.22390747070312 151.4169158935547 150.8617401123047 150.7939453125 150.91702270507812 151.4140167236328 151.80136108398438 152.65599060058594 152.96229553222656 153.9858856201172 155.2447509765625 156.84397888183594 159.8101348876953 161.69805908203125 167.88136291503906 170.67747497558594 176.46351623535156 178.2625732421875 178.3680877685547 177.86529541015625 179.54965209960938 183.6187744140625 186.36788940429688 191.7271728515625 194.68411254882812 197.36024475097656 200.99659729003906 203.4019317626953 209.33872985839844 211.8240966796875 217.03424072265625 221.71542358398438 225.450439453125 229.9871368408203 231.812744140625 237.42625427246094 240.82659912109375 252.5137176513672 257.1731872558594 272.3137512207031 280.3024597167969 295.2769470214844 297.9641418457031 301.03472900390625 304.0967712402344 306.3226013183594 309.7591247558594 309.3206787109375 306.0199279785156 302.5389099121094 297.145751953125 291.5970764160156 287.744140625 279.947509765625 277.01092529296875 270.4539489746094 267.1365661621094 261.3407897949219 254.31394958496094 248.37759399414062 241.8782958984375 240.2764434814453 240.53976440429688 242.51705932617188 249.2397003173828 256.00164794921875 259.4862976074219 262.3409729003906 267.77142333984375 272.85882568359375 276.43975830078125 282.6564025878906 285.0857849121094 287.16448974609375 292.69793701171875 296.7142639160156 304.6925964355469 311.9923400878906 321.0203552246094 328.45111083984375 335.33111572265625 348.38739013671875 351.2532043457031 362.2414245605469 366.95806884765625 373.5156555175781 378.1419677734375 382.2386779785156 383.942138671875 383.1046447753906 378.5304260253906 372.29925537109375 362.8691101074219 353.94287109375 355.4971923828125 359.69024658203125 369.3548278808594 372.05755615234375 375.29766845703125 375.125244140625 372.1387939453125 364.7903137207031 361.38720703125 353.8088684082031 352.24127197265625 350.4241638183594 347.4598693847656 343.06201171875 331.3626708984375 326.5329284667969 317.88336181640625 314.66876220703125 309.2164306640625 304.3420715332031 300.9068908691406 295.5446472167969 292.9456481933594
142.77037048339844 142.76458740234375 142.42442321777344 142.0439453125 141.4173126220703 141.24996948242188 140.73768615722656 140.25379943847656 139.0870819091797 138.22531127929688 137.45950317382812 136.2680206298828 135.96612548828125 136.04608154296875 136.0818634033203 136.33340454101562 136.3394775390625 135.70826721191406 134.418701171875 133.95077514648438 133.0375213623047 132.6907196044922 132.1354217529297 131.73223876953125 131.3923797607422 130.8515167236328 130.5449676513672 129.8553466796875 129.61886342366537 129.57788340250653 130.5145721435547 131.34474182128906 132.82029724121094 133.6165313720703 135.33592224121094 136.10240173339844 136.69171142578125 136.8612823486328 137.1781768798828 138.05665588378906 138.71385192871094 141.1103057861328 140.51168823242188 137.81190490722656 137.08999633789062 139.07733154296875 140.09713745117188 143.1151885986328 145.2124481201172 147.22549438476562 147.32359313964844 147.8946990966797 152.83444213867188 155.07696533203125 160.59103393554688 161.063232421875 160.8165740966797 159.8830108642578 158.74375915527344 156.63632202148438 155.72991943359375 153.63009643554688 152.93003845214844 152.61631774902344 152.79783630371094 153.02035522460938 153.69683837890625 154.11517333984375 155.00823974609375 155.38719177246094 156.4333953857422 157.568359375 159.08935546875 162.61026000976562 164.5705108642578 170.91458129882812 173.93357849121094 178.35574340820312 179.67718505859375 179.9232940673828 180.06146240234375 182.98509216308594 188.3052978515625 190.19692993164062 193.8105926513672 195.86798095703125 199.17051696777344 203.8626708984375 206.91676330566406 213.39271545410156 215.82281494140625 219.36355590820312 223.3618927001953 227.58139038085938 232.52944946289062 235.24078369140625 241.60118103027344 245.15733337402344 257.2509460449219 264.6133117675781 279.7578125 288.1339111328125 298.300048828125 301.3399963378906 304.96783447265625 308.8564758300781 311.8548278808594 312.56451416015625 311.0307922363281 307.8931884765625 305.59686279296875 299.56134033203125 293.9362487792969 289.95904541015625 280.6423645019531 277.4461975097656 270.8708801269531 267.5522155761719 261.2306213378906 252.41635131835938 246.43788146972656 241.56297302246094 240.46047973632812 241.66177368164062 243.0061492919922 247.94509887695312 253.27301025390625 256.55462646484375 268.8660888671875 270.7637939453125 273.5606994628906 276.7144775390625 282.8803405761719 285.2362976074219 287.9112548828125 292.959228515625 298.1863708496094 308.4803771972656 311.4920959472656 321.7674560546875 328.7070007324219 336.51446533203125 346.4251708984375 349.9958190917969 361.0638732910156 366.3608093261719 373.0347595214844 376.57733154296875 377.8936767578125 378.16082763671875 377.60546875 371.9073181152344 363.6116027832031 353.325439453125 351.419677734375 360.413330078125 368.7279357910156 377.487060546875 380.3871154785156 382.0105895996094 380.6846618652344 376.7339782714844 370.101318359375 367.5751647949219 359.8641052246094 357.12542724609375 354.5353088378906 351.38226318359375 347.3105163574219 332.61053466796875 328.160888671875 319.2998352050781 315.6500549316406 310.50457763671875 305.6382751464844 302.58282470703125 295.6432189941406 292.69873046875
141.88169860839844 141.8533172607422 141.3848114013672 140.9144287109375 139.82769775390625 139.4621124267578 138.2747802734375 137.46778869628906 136.68081665039062 136.1563262939453 135.64613342285156 134.88133239746094 134.6743621826172 134.66921997070312 134.65963745117188 134.90272521972656 135.1222686767578 134.7123565673828 133.8959197998047 133.42359924316406 132.4948272705078 132.2047882080078 131.66502380371094 131.31138610839844 130.98707580566406 130.46664428710938 130.1710968017578 129.65984344482422 129.91644287109375 130.59933471679688 131.1978759765625 132.11801147460938 133.71656799316406 134.53475952148438 137.16439819335938 138.13775634765625 139.07717895507812 139.45089721679688 139.83157348632812 140.3039093017578 140.56008911132812 143.27566528320312 142.39537048339844 139.51942443847656 138.27687072753906 139.3831787109375 140.56275939941406 143.90440368652344 146.10519409179688 148.91217041015625 149.25875854492188 148.3551788330078 152.5754852294922 154.86102294921875 160.1870880126953 161.03939819335938 161.0533905029297 160.16580200195312 159.45526123046875 157.583251953125 156.67173767089844 155.0962677001953 154.63140869140625 154.62503051757812 155.1055908203125 155.63906860351562 156.51309204101562 156.74627685546875 157.328857421875 157.5402374267578 158.5013885498047 159.8050537109375 161.6495361328125 165.6194610595703 167.92074584960938 173.4742889404297 176.5727996826172 179.29676818847656 180.47630310058594 181.14462280273438 182.85906982421875 184.8892059326172 190.4464569091797 192.43165588378906 195.950927734375 198.366943359375 201.20895385742188 207.02415466308594 209.4886932373047 215.51815795898438 219.03961181640625 222.4337615966797 225.06687927246094 228.6515350341797 235.31698608398438 240.31723022460938 246.86807250976562 250.65846252441406 263.6857604980469 269.3139343261719 285.8285217285156 293.2453918457031 302.7369689941406 306.3082275390625 310.8021545410156 315.1686706542969 317.9663391113281 315.7628479003906 313.0574951171875 309.5224304199219 306.90972900390625 302.9346008300781 296.7223205566406 291.38250732421875 281.08563232421875 277.4156799316406 269.1537780761719 265.4268493652344 258.2420654296875 249.6826629638672 244.5298614501953 241.0582733154297 240.65646362304688 242.93017578125 244.7034454345703 250.2714385986328 256.6906433105469 259.93682861328125 266.22247314453125 267.29339599609375 272.3702392578125 275.6297607421875 281.4623718261719 284.09197998046875 286.5225524902344 294.3167419433594 300.279052734375 312.2132873535156 314.85882568359375 321.07861328125 328.0606384277344 336.8418273925781 346.125244140625 351.13775634765625 361.284423828125 365.9981384277344 372.04083251953125 374.0523681640625 373.14483642578125 372.3873291015625 372.6801452636719 365.00299072265625 356.2296447753906 349.08074951171875 353.54473876953125 368.1248779296875 374.5165100097656 381.3371276855469 379.6991882324219 378.0480651855469 373.7201843261719 371.0651550292969 366.9823913574219 364.8870544433594 360.7821044921875 358.797607421875 356.3579406738281 351.63226318359375 346.4693908691406 331.9188537597656 327.5130615234375 318.3354797363281 315.2982177734375 310.9742431640625 305.953125 302.64471435546875 295.8715515136719 292.8976745605469
140.7600555419922 140.53233337402344 139.77479553222656 139.1035614013672 137.95152282714844 137.35122680664062 135.40301513671875 135.07150268554688 134.83773803710938 134.703369140625 134.45924377441406 134.12124633789062 133.9703369140625 133.84388732910156 133.92308044433594 133.98892211914062 133.93966674804688 133.7435302734375 133.1375274658203 132.760498046875 131.94540405273438 131.68722534179688 131.2227783203125 130.90164184570312 130.5939483642578 130.0659942626953 129.7298126220703 130.17601013183594 130.4979248046875 131.28744506835938 132.00482177734375 132.91127014160156 134.38885498046875 135.41253662109375 139.6837921142578 140.9171905517578 142.51133728027344 143.3767547607422 143.8430938720703 143.78428649902344 143.83444213867188 146.0589599609375 145.05319213867188 141.7652587890625 140.34532165527344 139.51760864257812 141.13197326660156 145.06259155273438 147.381591796875 151.3138885498047 151.9705810546875 150.51528930664062 153.08514404296875 155.25790405273438 159.8805389404297 160.78610229492188 161.24832153320312 160.64608764648438 160.06802368164062 158.1975860595703 157.56748962402344 156.81202697753906 156.62640380859375 156.91915893554688 157.7861785888672 158.47853088378906 159.25888061523438 159.52259826660156 159.65084838867188 159.7148895263672 160.91845703125 162.6224822998047 164.55308532714844 169.43272399902344 171.35855102539062 175.60543823242188 177.72247314453125 179.87649536132812 181.15866088867188 181.99551391601562 183.51922607421875 185.66200256347656 190.58956909179688 194.0525665283203 198.17379760742188 200.68295288085938 203.8197784423828 208.2733917236328 209.82022094726562 216.78530883789062 219.8636932373047 223.69244384765625 226.5181884765625 230.7397918701172 239.56863403320312 245.13121032714844 252.34515380859375 254.6765594482422 267.8492126464844 275.85345458984375 291.2326354980469 297.7259216308594 308.7696533203125 312.52496337890625 317.79248046875 322.80517578125 323.8788146972656 319.64971923828125 317.294189453125 311.4417419433594 308.4584045410156 304.1919860839844 296.1914367675781 289.94256591796875 279.1920471191406 275.1810607910156 266.9083557128906 262.6530456542969 255.56051635742188 247.7747039794922 243.8977813720703 240.61358642578125 240.07843017578125 243.9762420654297 247.67330932617188 254.76014709472656 258.4822998046875 260.0343017578125 262.6333312988281 265.5065002441406 271.44635009765625 273.2800598144531 278.2620544433594 281.01885986328125 285.7507629394531 298.0863037109375 303.7723388671875 315.631103515625 319.213623046875 326.0930480957031 332.1912536621094 335.91766357421875 346.27508544921875 350.8114318847656 359.32305908203125 364.1356506347656 368.4609375 367.7222900390625 365.2245178222656 362.0063781738281 360.6696472167969 353.9027404785156 346.2135009765625 348.6243591308594 354.4604187011719 363.2846374511719 365.1443176269531 372.8287048339844 371.0960388183594 368.01092529296875 366.2719421386719 364.4568176269531 361.32171630859375 360.6852722167969 357.77886962890625 356.47576904296875 353.48162841796875 345.4102783203125 338.6031188964844 327.4718017578125 322.8615417480469 313.9974365234375 311.74395751953125 308.6697082519531 304.7158203125 301.203857421875 295.71624755859375 293.2169494628906
138.54884338378906 137.93115234375 137.2576904296875 136.75047302246094 136.04281616210938 135.34646606445312 134.58712768554688 134.38926696777344 134.16680908203125 133.9572296142578 133.72454833984375 133.3925018310547 133.23016357421875 133.08897399902344 133.1605224609375 133.02865600585938 132.8550262451172 132.7083740234375 132.20974731445312 131.98446655273438 131.4058837890625 131.2015838623047 130.8124237060547 130.46546936035156 130.2164306640625 129.7997817993164 129.9952850341797 130.74591064453125 131.21661376953125 132.13832092285156 132.9121856689453 133.72100830078125 135.11058044433594 137.32156372070312 143.05072021484375 144.60972595214844 147.35096740722656 148.66343688964844 149.48959350585938 149.32003784179688 149.26400756835938 149.25628662109375 147.8211212158203 144.22305297851562 142.63870239257812 139.7996826171875 141.14666748046875 145.96693420410156 148.91549682617188 153.57861328125 154.4571990966797 152.60263061523438 153.90599060058594 155.9458770751953 159.80767822265625 160.6574249267578 161.40283203125 161.16476440429688 160.46421813964844 158.83145141601562 158.60658264160156 158.51173400878906 158.4348602294922 158.9700927734375 159.9938507080078 160.71435546875 161.42897033691406 161.64012145996094 161.79286193847656 162.0582275390625 163.4478759765625 165.43080139160156 167.5408935546875 172.35623168945312 173.80941772460938 177.18017578125 178.51759338378906 180.51797485351562 181.80958557128906 182.82374572753906 185.28369140625 187.99452209472656 192.48788452148438 195.83631896972656 200.78480529785156 203.77561950683594 206.74342346191406 210.63873291015625 212.46873474121094 218.9043731689453 221.11135864257812 224.81919860839844 227.6855010986328 232.25978088378906 243.2555389404297 248.41529846191406 257.5101013183594 259.1806335449219 273.667724609375 282.1943664550781 297.1888122558594 304.1033020019531 314.7110595703125 319.07330322265625 323.87823486328125 327.0652770996094 326.9339599609375 319.0364074707031 315.829833984375 310.11224365234375 307.25152587890625 300.90399169921875 292.0038146972656 285.9192199707031 275.14654541015625 271.5234069824219 264.9190368652344 261.73590087890625 254.8734893798828 248.5705108642578 245.71548461914062 239.84091186523438 239.19520568847656 244.35206604003906 249.48434448242188 254.33599853515625 257.3976745605469 258.8399963378906 262.3574523925781 264.9997863769531 270.6582946777344 273.4410705566406 277.46368408203125 281.1922912597656 288.7564392089844 303.0500793457031 308.63702392578125 321.9573059082031 329.12066650390625 333.6558532714844 336.9874572753906 341.724609375 350.0677490234375 351.84033203125 357.00592041015625 360.9608154296875 359.6730041503906 356.92510986328125 355.3843688964844 350.8090515136719 347.5174255371094 340.422119140625 340.2125244140625 349.19635009765625 351.88226318359375 357.0681457519531 358.9814758300781 363.9073791503906 358.66595458984375 358.0045471191406 357.34100341796875 355.2446594238281 352.0467834472656 351.99786376953125 350.3243103027344 350.0755310058594 345.76702880859375 336.2235412597656 331.0511779785156 322.52960205078125 317.789794921875 308.5499572753906 305.45758056640625 303.56396484375 300.7551574707031 298.5552978515625 293.90069580078125 291.4798889160156
136.33558654785156 135.41311645507812 135.0334930419922 134.92990112304688 134.83786010742188 134.6689453125 134.1209716796875 133.902587890625 133.56910705566406 133.35586547851562 133.0603790283203 132.72425842285156 132.5845489501953 132.25942993164062 132.15948486328125 132.08758544921875 131.8863525390625 131.76385498046875 131.4495086669922 131.3703155517578 130.92083740234375 130.63333129882812 129.82719530378074 129.81805746895932 129.8089196341379 130.40260314941406 130.666748046875 131.55308532714844 132.1211700439453 133.15151977539062 133.93443298339844 134.75604248046875 137.0905303955078 141.2500457763672 147.3124237060547 149.42677307128906 152.86105346679688 153.6031951904297 154.72396850585938 155.2190704345703 154.77767944335938 151.41111755371094 149.60369873046875 146.30538940429688 144.44235229492188 140.9217529296875 140.63436889648438 146.2078399658203 149.8187255859375 154.32984924316406 156.20864868164062 153.7416229248047 155.66586303710938 157.4925079345703 160.05523681640625 160.7525634765625 161.5696258544922 161.6068115234375 160.95562744140625 159.78623962402344 159.8060760498047 159.98944091796875 159.99400329589844 160.6263885498047 161.59146118164062 162.318359375 163.3199005126953 163.5203857421875 163.6879425048828 164.1178436279297 165.61856079101562 167.68255615234375 169.86839294433594 174.02464294433594 175.42169189453125 178.4142303466797 179.44696044921875 181.23358154296875 182.51934814453125 183.81500244140625 188.33494567871094 190.73599243164062 195.29141235351562 197.6190643310547 202.75222778320312 206.1503448486328 208.92276000976562 212.75210571289062 214.84552001953125 220.17173767089844 222.24610900878906 226.5576171875 229.7801055908203 234.26210021972656 246.109375 250.8186492919922 260.87249755859375 264.572021484375 279.752197265625 288.2450256347656 304.2566223144531 310.0340576171875 319.9574279785156 324.45654296875 328.16998291015625 328.17803955078125 326.24017333984375 315.5059814453125 312.3477478027344 307.9400329589844 304.4879150390625 296.32415771484375 287.3092346191406 280.702392578125 269.890869140625 267.3875732421875 261.6137390136719 258.9766540527344 254.1338348388672 249.0067138671875 245.6915283203125 238.3983154296875 238.10302136230467 243.87680053710938 249.4142608642578 253.3855743408203 255.6997528076172 256.430908203125 260.9480895996094 263.9508361816406 269.3151550292969 274.10418701171875 279.34490966796875 286.6458435058594 294.9332275390625 310.3273010253906 317.69378662109375 331.7402038574219 334.27703857421875 338.8160095214844 345.3327331542969 350.7083435058594 351.26153564453125 351.39337158203125 353.30303955078125 353.7174377441406 350.7055969238281 348.26715087890625 346.47259521484375 341.63525390625 339.047119140625 334.4732360839844 339.7484130859375 346.24285888671875 347.7054443359375 349.6916198730469 350.83648681640625 351.43939208984375 348.37615966796875 346.629638671875 344.6302185058594 342.23931884765625 342.86199951171875 342.95068359375 340.4203796386719 340.06658935546875 337.4842529296875 328.00286865234375 321.5226745605469 313.72222900390625 310.5044250488281 303.2119445800781 299.9450378417969 297.4112243652344 295.77301025390625 294.62420654296875 290.9083557128906 288.8149719238281
134.9244384765625 134.7431640625 134.58717346191406 134.42868041992188 134.2423858642578 134.05946350097656 133.7187042236328 133.4147491455078 133.12205505371094 132.7904510498047 132.39305114746094 131.88511657714844 131.68685913085938 131.35995483398438 131.3644561767578 131.2700653076172 131.2037811279297 131.12310791015625 130.87069702148438 129.854608808245 129.84547097342357 129.83633313860216 130.1136932373047 130.27825927734375 130.60511779785156 131.18833923339844 131.59840393066406 132.61236572265625 133.16094970703125 134.30282592773438 135.04092407226562 136.8779754638672 143.0082244873047 146.06224060058594 153.162841796875 155.11770629882812 156.9140167236328 157.42559814453125 157.97988891601562 158.18296813964844 157.56167602539062 152.72415161132812 151.05484008789062 147.97068786621094 146.13973999023438 142.67100524902344 141.00257873535156 146.05320739746094 149.7685546875 154.85906982421875 158.41104125976562 155.0304412841797 158.5904083251953 159.73646545410156 160.67498779296875 161.11289978027344 161.9049072265625 162.10348510742188 161.70321655273438 160.9957733154297 161.1446533203125 161.40814208984375 161.69351196289062 162.3141326904297 163.2442169189453 163.9590301513672 165.20758056640625 165.51551818847656 165.5305938720703 165.79786682128906 167.3598175048828 169.34600830078125 171.46731567382812 175.3709259033203 176.81539916992188 179.4966278076172 180.5601348876953 182.22979736328125 183.41159057617188 185.3715362548828 190.73130798339844 192.79360961914062 197.38331604003906 199.35208129882812 204.06700134277344 207.48504638671875 210.2074737548828 214.21839904785156 216.10324096679688 220.75367736816406 223.00131225585938 228.1105499267578 232.428466796875 237.49261474609375 248.04835510253906 252.16571044921875 262.9786376953125 269.114013671875 285.19366455078125 293.2575378417969 308.73895263671875 314.26312255859375 323.7680969238281 327.6370544433594 329.1656799316406 326.3672790527344 321.718505859375 311.7942199707031 308.37384033203125 303.507568359375 298.6659851074219 290.4485778808594 279.6610107421875 274.0321044921875 265.626953125 263.6302795410156 258.55426025390625 255.82327270507812 251.7738800048828 247.01947021484375 243.41268920898438 238.1020213623047 238.1020213623047 243.7357940673828 248.2855224609375 252.45828247070312 254.21099853515625 255.20108032226562 259.58648681640625 262.5299987792969 270.14239501953125 276.2216491699219 283.7615661621094 293.3960266113281 302.7946472167969 321.25946044921875 327.69500732421875 335.5974426269531 338.9834899902344 344.701416015625 350.1545104980469 351.8327941894531 349.7400817871094 348.23028564453125 346.2967529296875 345.3664855957031 342.0968322753906 339.6109313964844 337.0732116699219 332.1753845214844 330.5111083984375 332.17095947265625 337.45538330078125 340.54168701171875 340.7202453613281 338.05859375 339.7537536621094 342.4349365234375 338.92303466796875 335.55218505859375 334.24200439453125 332.4418640136719 334.435302734375 332.8943176269531 329.91375732421875 330.0521545410156 325.9649658203125 317.1001281738281 312.0704650878906 304.39605712890625 302.30120849609375 297.0146179199219 295.22723388671875 292.80938720703125 290.5077209472656 289.0714111328125 286.92938232421875 285.8416748046875
134.4969940185547 134.299560546875 134.0583953857422 133.964599609375 133.62611389160156 133.55540466308594 133.219482421875 133.02529907226562 132.72630310058594 132.38458251953125 132.09197998046875 131.36105346679688 130.42752329508465 130.39275360107422 130.31922149658203 130.25115203857422 130.12201690673828 129.99288177490234 129.8637466430664 130.0592498779297 130.33505249023438 130.52767944335938 130.88015747070312 131.2797393798828 131.68551635742188 132.54263305664062 132.90211486816406 133.78292846679688 134.3563232421875 135.66497802734375 138.7964630126953 143.01361083984375 149.45884704589844 152.7793731689453 156.79637145996094 158.14891052246094 160.17218017578125 160.93341064453125 161.60598754882812 161.5574188232422 160.65106201171875 153.63233947753906 152.49134826660156 149.79443359375 148.02125549316406 144.6131134033203 142.83596801757812 146.7992706298828 150.04864501953125 154.99891662597656 160.07913208007812 159.9473876953125 160.58226013183594 160.73867797851562 161.58963012695312 161.84722900390625 162.52711486816406 162.80552673339844 162.6790008544922 162.60301208496094 162.74818420410156 163.19395446777344 163.5175018310547 164.1880645751953 164.9935302734375 165.6913604736328 167.29519653320312 167.613037109375 167.66258239746094 167.8462677001953 169.02734375 170.6912841796875 172.77395629882812 176.98805236816406 178.32891845703125 180.687255859375 181.8085174560547 183.6785888671875 185.05043029785156 187.9549102783203 192.0022430419922 194.69342041015625 199.27688598632812 200.96859741210938 205.21755981445312 208.50035095214844 211.398193359375 215.60755920410156 217.30714416503906 221.18174743652344 223.11236572265625 228.40264892578125 234.2225799560547 240.42459106445312 249.2951202392578 253.48431396484375 265.8867492675781 273.18902587890625 289.45050048828125 296.5286865234375 310.0030517578125 316.0381774902344 325.77783203125 328.64007568359375 327.4508972167969 322.4942932128906 317.1024169921875 309.04302978515625 305.6989440917969 298.7443542480469 292.4276428222656 282.72210693359375 272.62884521484375 268.09503173828125 261.7540588378906 259.9222717285156 254.82810974121094 252.0294952392578 248.04075622558594 243.61585998535156 240.11912536621094 238.1010213623047 238.2140655517578 243.89956665039062 247.952392578125 251.7704620361328 251.93556213378906 254.68783569335938 259.93341064453125 262.3433837890625 272.7724609375 278.1583251953125 289.4852600097656 300.85211181640625 311.5531005859375 327.1068115234375 331.64404296875 338.52923583984375 342.4283447265625 347.22821044921875 350.2987365722656 349.5078125 345.7627868652344 344.01007080078125 339.1221923828125 336.5930480957031 333.25262451171875 332.0497131347656 329.2553405761719 324.34259033203125 323.2064208984375 328.947998046875 330.8420104980469 330.86798095703125 331.5918884277344 326.1933898925781 328.6577453613281 333.2698974609375 329.1632995605469 325.3371887207031 324.8955383300781 323.7581787109375 326.35321044921875 324.9686584472656 316.1074523925781 314.8598937988281 312.0627136230469 306.4526062011719 302.3163757324219 297.08062744140625 294.7628479003906 290.17718505859375 289.1840515136719 288.0649719238281 286.1250305175781 285.1946105957031 283.7186584472656 282.9678039550781
134.09188842773438 133.81069946289062 133.664794921875 133.434814453125 133.20481872558594 133.0430145263672 132.7025146484375 132.50173950195312 132.15484619140625 131.8706512451172 131.64317321777344 131.03811645507812 130.46229298909506 130.69256591796875 130.5882568359375 130.5147247314453 130.4466552734375 130.4904022216797 130.6351776123047 130.70135498046875 131.22616577148438 131.4908447265625 132.14028930664062 132.6932830810547 133.25747680664062 134.02699279785156 134.3055419921875 134.7631072998047 135.40994262695312 139.6592559814453 144.3812255859375 149.94200134277344 155.30709838867188 156.55015563964844 159.52162170410156 161.08724975585938 163.6627655029297 165.6040802001953 166.23666381835938 165.69708251953125 164.28060913085938 158.56915283203125 154.71261596679688 151.7409210205078 150.2424774169922 147.38656616210938 145.0679473876953 147.3681640625 150.33238220214844 154.45816040039062 159.41677856445312 160.44419860839844 161.48519897460938 161.75112915039062 162.3766632080078 162.91712951660156 163.2218017578125 163.3509979248047 163.40020751953125 164.02615356445312 164.2259521484375 164.66342163085938 164.993896484375 165.86553955078125 166.96142578125 167.99188232421875 169.7463836669922 170.0703125 170.02186584472656 169.9821014404297 170.62155151367188 171.89718627929688 174.40150451660156 178.574462890625 179.5294189453125 181.97799682617188 183.1217498779297 185.98216247558594 188.55453491210938 191.38897705078125 195.31321716308594 196.4148406982422 200.96377563476562 202.37069702148438 206.1399688720703 209.49404907226562 212.52862548828125 216.57215881347656 218.2974853515625 221.16893005371094 223.1494903564453 228.56748962402344 235.04901123046875 242.42616271972656 250.6789093017578 256.2242126464844 271.02117919921875 277.06146240234375 291.6678161621094 297.45196533203125 309.57122802734375 315.6840515136719 325.1686706542969 326.6562194824219 322.79541015625 317.4401550292969 313.6380310058594 306.7791748046875 303.9833984375 293.7154235839844 285.5367431640625 274.71478271484375 266.7626647949219 263.1345520019531 257.7654724121094 255.7057647705078 250.49949645996094 247.94949340820312 244.11050415039062 240.08421325683594 238.1000213623047 238.3389434814453 239.25445556640625 244.2816619873047 247.81356811523438 249.72137451171875 250.564697265625 254.25616455078125 261.9700622558594 265.1487121582031 273.8747253417969 280.8070373535156 296.35650634765625 306.8820495605469 317.0305480957031 329.6513671875 333.1163635253906 339.9229736328125 342.6062316894531 343.9614562988281 344.0169372558594 342.3815002441406 338.63934326171875 337.187255859375 332.5250244140625 330.5956726074219 325.60028076171875 323.088623046875 320.1575622558594 314.97540283203125 318.28125 325.4753112792969 323.9782409667969 320.32049560546875 309.49700927734375 319.1542663574219 317.955810546875 322.8681945800781 320.1322326660156 316.5303039550781 315.8342590332031 313.6785888671875 314.906494140625 314.3086242675781 305.8954162597656 303.2731628417969 301.6058044433594 296.28399658203125 292.26654052734375 288.48651123046875 286.5218505859375 284.5876770019531 284.831787109375 284.39306640625 283.17767333984375 282.081298828125 280.3171691894531 279.260498046875
133.66729736328125 133.4723663330078 133.24545288085938 133.0976104736328 132.81703186035156 132.60870361328125 132.2864532470703 132.191650390625 131.96221923828125 131.65090942382812 131.4322509765625 130.95428466796875 130.49706268310547 130.8974609375 131.1050262451172 131.04017639160156 131.08767700195312 131.1316375732422 131.4195556640625 131.6992645263672 132.54425048828125 133.03842163085938 133.7939453125 134.33334350585938 134.69223022460938 135.6833038330078 136.5472412109375 138.4606170654297 139.76011657714844 144.53675842285156 150.1475372314453 154.70346069335938 157.83578491210938 158.94598388671875 162.76263427734375 164.43528747558594 166.78170776367188 168.04920959472656 168.49703979492188 167.99903869628906 166.87120056152344 160.89447021484375 157.9849090576172 153.9315185546875 152.65000915527344 149.52684020996094 147.67422485351562 148.33351135253906 150.97882080078125 154.41163635253906 158.6535186767578 160.09310913085938 161.80899047851562 162.2184600830078 163.46995544433594 163.850830078125 164.0177764892578 163.90304565429688 164.03817749023438 164.7548828125 165.10736083984375 166.04161071777344 166.93797302246094 168.26571655273438 169.591552734375 170.57229614257812 172.31983947753906 172.48593139648438 172.07388305664062 172.0062255859375 172.55960083007812 174.56695556640625 176.73475646972656 179.5318603515625 180.434326171875 183.21768188476562 184.52716064453125 189.51747131347656 191.7952423095703 194.10780334472656 198.3167724609375 200.17164611816406 202.202880859375 204.08935546875 207.2618865966797 210.53404235839844 213.36337280273438 216.893798828125 218.3314971923828 221.94467163085938 225.61326599121094 231.0703125 237.85398864746094 245.37815856933594 253.20263671875 259.2688903808594 274.76934814453125 279.6607360839844 291.5621337890625 296.4593811035156 308.10772705078125 314.29083251953125 321.4106140136719 318.9778747558594 314.1275939941406 311.0019836425781 308.833740234375 302.7276916503906 299.97906494140625 286.7646179199219 276.8710632324219 268.6935119628906 261.4399108886719 258.6020812988281 254.0308380126953 251.48597717285156 246.70797729492188 244.3351593017578 240.61849975585938 237.7088623046875 237.7103729248047 239.31338500976562 240.35101318359375 244.7005615234375 246.8654022216797 246.91842651367188 250.04574584960938 253.9019012451172 263.50347900390625 268.602294921875 275.628662109375 286.1660461425781 301.37677001953125 311.4772033691406 319.44586181640625 330.9905090332031 333.90740966796875 339.15155029296875 340.0540466308594 339.0308837890625 337.4023132324219 335.6275329589844 331.908203125 330.2073974609375 324.755859375 323.2328186035156 318.5660095214844 314.82489013671875 310.98284912109375 311.1831359863281 315.822021484375 317.84613037109375 314.38775634765625 309.931640625 301.7195739746094 311.78985595703125 309.4909362792969 313.2601318359375 312.01702880859375 308.1408386230469 305.76025390625 304.271728515625 303.3789367675781 302.79266357421875 293.8467102050781 290.331787109375 290.0867614746094 286.0544738769531 283.3042907714844 281.4139709472656 280.0626525878906 280.3992919921875 281.3954162597656 281.3287353515625 279.61138916015625 277.7609558105469 275.7210693359375 274.7501220703125
133.34780883789062 133.17478942871094 132.9250030517578 132.82508850097656 132.49066162109375 132.3321533203125 132.0915985107422 131.90847778320312 131.70616149902344 131.45237731933594 131.23854064941406 130.7935333251953 130.54754638671875 131.21591186523438 131.5013427734375 131.7236328125 131.9740447998047 132.204833984375 132.91802978515625 133.11972045898438 134.08082580566406 134.51683044433594 135.3695526123047 136.7777557373047 138.34707641601562 141.23614501953125 142.18399047851562 143.86964416503906 144.7910614013672 148.8301544189453 154.08351135253906 156.66302490234375 160.1538543701172 162.20941162109375 166.3475341796875 167.66220092773438 169.83108520507812 170.88267517089844 171.27210998535156 170.13372802734375 168.6172637939453 163.7167205810547 161.70335388183594 159.94573974609375 158.11569213867188 152.03924560546875 150.02537536621094 149.59201049804688 152.4854278564453 155.6765594482422 159.14418029785156 160.40528869628906 162.09962463378906 162.91995239257812 164.3831024169922 164.9037628173828 164.98611450195312 164.6376495361328 164.4665985107422 165.47824096679688 166.0477752685547 169.3440704345703 170.80877685546875 171.52825927734375 172.0656280517578 172.45692443847656 173.37393188476562 173.62632751464844 175.44166564941406 175.86038208007812 176.5916748046875 178.08457946777344 178.754638671875 180.40074157714844 181.20692443847656 183.40505981445312 184.88816833496094 188.72662353515625 192.43295288085938 196.0581817626953 202.39077758789062 203.43939208984375 204.5374298095703 206.00299072265625 208.44146728515625 214.008056640625 215.3562469482422 217.43948364257812 218.88067626953125 224.34521484375 227.86361694335938 234.36228942871094 241.30987548828125 247.22731018066406 256.5477294921875 262.7541809082031 277.18023681640625 280.4698791503906 291.9041442871094 297.19305419921875 305.7427673339844 309.3397521972656 312.27886962890625 307.98748779296875 303.68402099609375 301.0556335449219 299.27435302734375 293.2920227050781 290.3370361328125 278.6825866699219 271.9833984375 265.7991027832031 258.267578125 255.22024536132812 250.91583251953125 248.4851837158203 243.5806121826172 240.9918975830078 238.21031188964844 236.9272003173828 237.67315673828125 239.99658203125 240.92726135253906 244.475341796875 244.95785522460938 245.77574157714844 249.9496612548828 254.0538330078125 264.3297119140625 269.97637939453125 280.6846618652344 293.564453125 304.8035583496094 315.0301208496094 320.8250732421875 331.4864196777344 333.8315124511719 336.65850830078125 336.14947509765625 334.6939697265625 332.4231872558594 329.9737854003906 326.0281677246094 323.1799011230469 317.544921875 314.6737976074219 311.1678771972656 307.7508544921875 303.8782043457031 308.57598876953125 313.007080078125 307.9819641113281 305.1710510253906 293.8485107421875 302.1542053222656 303.5792541503906 301.8919982910156 303.97052001953125 303.8215637207031 301.38372802734375 296.5460510253906 295.0821533203125 293.7319030761719 292.4952087402344 283.23138427734375 279.547119140625 280.1561279296875 278.0621337890625 276.2868957519531 275.6275329589844 274.8903503417969 276.2218017578125 277.52008056640625 277.3657531738281 275.55743408203125 273.6072692871094 271.3303527832031 270.8791198730469
133.1433563232422 132.8475799560547 132.6243896484375 132.4752655029297 132.18109130859375 132.08169555664062 131.8795928955078 131.7087860107422 131.4967041015625 131.2271728515625 131.0454559326172 130.59803009033203 131.03773498535156 131.6911163330078 132.0814971923828 132.60791015625 132.98826599121094 133.3413543701172 133.9827423095703 134.34255981445312 135.2748565673828 136.5903778076172 139.71351623535156 142.15701293945312 143.91217041015625 146.64468383789062 147.78289794921875 149.20260620117188 149.8271484375 152.67291259765625 156.3083038330078 159.0825653076172 163.6487579345703 165.9024200439453 169.34205627441406 170.72850036621094 172.45709228515625 173.0288543701172 172.9729461669922 172.0914306640625 170.7346649169922 166.09942626953125 164.77845764160156 162.9398956298828 161.47579956054688 155.21653747558594 152.6661834716797 150.4823760986328 153.4159393310547 156.25616455078125 159.23963928222656 160.47816467285156 162.75550842285156 163.5631103515625 165.11453247070312 165.67459106445312 165.89935302734375 165.48577880859375 164.95664978027344 165.61695861816406 167.54025268554688 172.1479034423828 172.7169952392578 172.9873809814453 173.40853881835938 173.728759765625 174.6005859375 175.04148864746094 177.5041046142578 178.07388305664062 178.6158905029297 179.25180053710938 179.54576110839844 181.22796630859375 181.96556091308594 183.80653381347656 184.9214630126953 188.419189453125 192.17361450195312 195.88687133789062 203.49330139160156 204.6246795654297 207.14666748046875 208.14093017578125 209.83729553222656 213.22079467773438 214.91770935058594 217.72547912597656 219.599365234375 225.50962829589844 228.2144317626953 235.2937469482422 243.08041381835938 247.96682739257812 259.4892578125 265.16326904296875 278.13165283203125 281.2433166503906 294.34796142578125 298.9623718261719 301.0329284667969 300.12481689453125 298.2422180175781 296.0658874511719 293.91986083984375 289.4653015136719 285.3415222167969 280.1864929199219 278.44024658203125 271.06512451171875 266.5685119628906 261.5124816894531 256.7941589355469 253.81430053710938 247.2837677001953 245.10621643066406 240.47242736816406 237.9616241455078 236.0990753173828 236.08956909179688 237.8627166748047 239.9780731201172 240.87208557128906 242.8789825439453 243.36566162109375 247.20822143554688 250.82569885253906 255.06202697753906 267.00616455078125 270.3460388183594 287.09356689453125 297.25457763671875 307.0004577636719 317.18798828125 321.4742736816406 330.4802551269531 332.3689880371094 333.3362731933594 332.3547058105469 329.45947265625 325.74298095703125 322.2192687988281 319.285888671875 316.4493408203125 312.3553466796875 309.302001953125 303.7304992675781 301.60638427734375 299.3673400878906 302.0876159667969 307.0937194824219 299.41693115234375 296.8808898925781 287.56231689453125 294.28314208984375 294.94891357421875 294.16534423828125 295.2250061035156 295.8788757324219 294.46075439453125 288.3426513671875 286.0475769042969 285.322021484375 283.7830505371094 275.8874206542969 272.6024475097656 272.6347961425781 272.19989013671875 270.6534729003906 270.5154113769531 270.0472412109375 272.21124267578125 273.5628356933594 273.5377502441406 272.005126953125 270.03411865234375 265.3483581542969 264.6610412597656
132.89768981933594 132.6219940185547 132.2906951904297 132.1897430419922 131.96237182617188 131.878173828125 131.6713409423828 131.51063537597656 131.2591094970703 131.0118408203125 130.6707992553711 131.3184814453125 131.7140655517578 132.87144470214844 133.4752655029297 133.6874542236328 133.93653869628906 134.20535278320312 134.7983856201172 135.52862548828125 139.82484436035156 141.59109497070312 144.65164184570312 147.40675354003906 149.2393341064453 152.57217407226562 153.2539520263672 154.25845336914062 154.40586853027344 156.5198516845703 159.29656982421875 162.14024353027344 166.60739135742188 168.5178985595703 171.94381713867188 172.91207885742188 174.08294677734375 174.4669952392578 174.05697631835938 173.09646606445312 172.4125518798828 169.7635955810547 168.20201110839844 165.38955688476562 163.80303955078125 160.15536499023438 157.30006408691406 152.19577026367188 153.4091033935547 156.2700653076172 158.62583923339844 159.7731170654297 162.84561157226562 163.86279296875 165.74777221679688 166.37289428710938 166.6975860595703 165.77734375 165.1027069091797 165.87550354003906 168.24745178222656 172.46470642089844 173.25973510742188 173.9753875732422 174.39454650878906 174.60202026367188 175.69361877441406 175.998291015625 176.52008056640625 177.02264404296875 177.73606872558594 177.8030548095703 179.284912109375 182.4424285888672 182.85841369628906 183.8498992919922 186.10926818847656 189.08670043945312 195.53070068359375 198.45989990234375 203.16627502441406 205.5694122314453 210.21331787109375 212.19166564941406 211.62762451171875 212.84414672851562 213.64871215820312 217.27557373046875 219.21682739257812 225.2425079345703 228.81105041503906 235.96636962890625 241.6939239501953 247.75015258789062 260.5772705078125 265.94879150390625 279.135009765625 284.7868347167969 288.6106872558594 291.22357177734375 290.7912902832031 289.9474792480469 287.8707275390625 286.15386962890625 281.8674621582031 280.98504638671875 278.2904968261719 268.50189208984375 268.3158874511719 262.2674255371094 259.83526611328125 256.8565673828125 252.9962921142578 250.83628845214844 245.6546173095703 241.9249725341797 237.26657104492188 235.3490447998047 233.536376953125 235.1161346435547 237.95094299316406 239.89158630371094 240.6690673828125 242.42428588867188 243.4464874267578 245.83987426757812 250.36834716796875 257.8897399902344 267.5921630859375 272.07159423828125 290.97418212890625 298.6396789550781 308.6197509765625 317.86651611328125 321.4188537597656 327.0592956542969 328.9197692871094 329.1795959472656 327.2223205566406 320.5530090332031 314.42034912109375 311.7195739746094 311.8193359375 312.18536376953125 306.6872253417969 305.1631774902344 297.85711669921875 296.07574462890625 294.9828186035156 293.1756591796875 298.0797119140625 293.1915283203125 289.4691162109375 282.5682678222656 287.9969482421875 286.9150390625 287.204833984375 287.98040771484375 287.8662109375 286.9462890625 281.2882080078125 278.4571533203125 277.8723449707031 276.66363525390625 271.34332275390625 268.38311767578125 267.0722351074219 267.219970703125 265.76519775390625 265.93963623046875 265.425537109375 267.84063720703125 269.7978820800781 269.8401184082031 268.0729064941406 266.0006103515625 260.0975036621094 258.39947509765625
132.621826171875 132.34738159179688 132.12547302246094 132.02157592773438 131.75750732421875 131.67831420898438 131.4121551513672 131.23590087890625 130.81633758544922 130.74356842041016 131.34701538085938 132.14039611816406 132.6006622314453 134.1229248046875 134.73655700683594 134.8342742919922 134.70480346679688 135.12469482421875 138.62252807617188 140.90533447265625 144.6588592529297 146.5082550048828 149.10537719726562 151.12789916992188 152.9264678955078 155.8135528564453 156.6430206298828 157.865234375 158.25051879882812 160.0848388671875 163.55276489257812 166.6504669189453 169.9727325439453 171.52618408203125 174.02308654785156 174.9718475341797 175.819580078125 175.6778106689453 174.98899841308594 174.0255584716797 173.4346923828125 172.29847717285156 172.0364990234375 169.08181762695312 166.82400512695312 163.12437438964844 161.3287811279297 155.5870819091797 154.18333435058594 156.6252899169922 158.9699249267578 160.16355895996094 163.41839599609375 164.2524871826172 166.11203002929688 167.04103088378906 167.16197204589844 165.83180236816406 165.3878631591797 166.6984405517578 168.92724609375 172.57115173339844 173.5734100341797 174.7708282470703 175.73974609375 175.9765625 176.37774658203125 176.8086395263672 177.96432495117188 177.92970275878906 177.869873046875 179.0488739013672 180.37789916992188 184.10475158691406 184.61671447753906 185.5196990966797 187.80491638183594 193.03492736816406 197.50608825683594 199.42071533203125 202.04364013671875 205.64581298828125 214.0895233154297 214.8759002685547 212.41880798339844 212.29464721679688 213.25230407714844 216.63941955566406 219.09683227539062 226.9591064453125 232.1429443359375 237.6273193359375 243.78639221191406 250.56973266601562 262.5250244140625 267.8302917480469 280.116455078125 283.84423828125 279.88043212890625 283.2129821777344 282.3035583496094 278.98724365234375 281.02691650390625 279.4060363769531 274.2325134277344 268.7100524902344 267.2033386230469 259.76080322265625 256.396728515625 254.37440490722656 253.7102508544922 252.17002868652344 247.7561798095703 244.927490234375 239.7766876220703 237.47128295898438 233.70960998535156 231.7122802734375 231.4673309326172 234.6833953857422 236.69403076171875 239.6943359375 240.4001922607422 242.70440673828125 243.98001098632812 247.24395751953125 254.3452606201172 262.3978576660156 272.0177307128906 279.11224365234375 292.7617492675781 298.8165588378906 308.7171630859375 316.65948486328125 318.9833984375 319.8187255859375 320.6573181152344 319.67071533203125 317.6371765136719 309.1449890136719 303.9483947753906 304.0151672363281 306.6455993652344 305.4108581542969 299.6654357910156 297.5927429199219 292.1797790527344 290.4371643066406 287.98052978515625 286.066650390625 288.9975891113281 288.3335876464844 283.3535461425781 283.0028991699219 274.7245788574219 280.9576110839844 282.2078857421875 282.25225830078125 280.5751037597656 279.60015869140625 275.6736145019531 273.517333984375 271.8909912109375 271.0466003417969 267.79595947265625 264.9361267089844 263.20599365234375 262.9253845214844 261.9617004394531 262.0702209472656 261.324462890625 262.88165283203125 265.3286437988281 265.32177734375 263.0974426269531 261.08056640625 256.4045104980469 254.10227966308594
132.41403198242188 132.14952087402344 131.91954040527344 131.76702880859375 131.54739379882812 131.3577880859375 131.04039764404297 130.9283676147461 131.25743103027344 131.60906982421875 132.06063842773438 133.12576293945312 133.7328338623047 135.18190002441406 136.10293579101562 136.0947723388672 137.49334716796875 139.98898315429688 143.67831420898438 145.0114288330078 148.77462768554688 150.3612518310547 152.79246520996094 154.41522216796875 155.48141479492188 158.24952697753906 159.56503295898438 161.41075134277344 162.2680206298828 164.5164031982422 167.55809020996094 170.8140869140625 173.08050537109375 174.0077362060547 176.63958740234375 177.29159545898438 177.11256408691406 176.7103729248047 176.09779357910156 174.7200164794922 174.23147583007812 173.2560577392578 172.8034210205078 172.03944396972656 170.0891876220703 165.82766723632812 163.79986572265625 158.289306640625 155.90492248535156 157.4139404296875 159.79844665527344 161.2252655029297 164.47607421875 165.47703552246094 166.3438720703125 167.28721618652344 167.68373107910156 167.1074981689453 166.85836791992188 169.16387939453125 170.45518493652344 173.1226348876953 174.3143310546875 175.91555786132812 176.97657775878906 177.15505981445312 177.29713439941406 176.8837127685547 178.19822692871094 178.17803955078125 178.24737548828125 179.56068420410156 181.46641540527344 183.3644561767578 184.39422607421875 189.07618713378906 191.16082763671875 196.05209350585938 199.3390350341797 201.1614990234375 204.09432983398438 206.1229705810547 210.035888671875 211.80093383789062 211.2347869873047 211.86505126953125 212.9462890625 216.4241943359375 218.98574829101562 227.8778533935547 232.68324279785156 239.4573211669922 246.81214904785156 254.10398864746094 266.17138671875 270.82220458984375 277.8515319824219 277.7267150878906 272.0488586425781 275.25750732421875 273.3349609375 271.1085205078125 272.1968994140625 270.7257080078125 267.3300476074219 256.57470703125 254.85702514648438 252.66143798828125 250.7017364501953 248.676025390625 245.65567016601562 244.11209106445312 242.01150512695312 239.56239318847656 233.5414276123047 231.7647247314453 229.6808624267578 227.98477172851562 230.71182250976562 234.3684844970703 236.02960205078125 238.90184020996094 239.7345428466797 242.88833618164062 244.65362548828125 250.459228515625 258.20855712890625 262.9163818359375 276.8128662109375 284.6779479980469 295.89788818359375 300.64312744140625 308.7235107421875 311.2708740234375 310.5486145019531 311.0453186035156 312.1729736328125 312.1605529785156 308.57275390625 300.1167297363281 296.4037170410156 298.4219665527344 299.0860595703125 294.54736328125 290.2153625488281 289.2134094238281 286.02252197265625 286.0816955566406 284.32440185546875 280.1541748046875 281.7883605957031 281.9814147949219 277.7277526855469 277.4303283691406 272.6125793457031 275.1592102050781 276.08935546875 276.9517822265625 274.1294250488281 272.26507568359375 270.50738525390625 269.8189392089844 266.7995300292969 266.310302734375 264.0126037597656 262.3898620605469 261.3394470214844 260.5965576171875 260.1290588378906 259.1751708984375 258.6183166503906 258.29193115234375 259.64508056640625 259.5782470703125 257.7348937988281 256.2837829589844 253.47511291503906 251.80792236328125
132.2826690673828 132.01776123046875 131.75979614257812 131.5579071044922 131.16228485107422 131.1216557820638 131.0810267130534 131.45989990234375 131.8182830810547 132.35702514648438 132.84132385253906 134.05795288085938 134.681640625 136.8262481689453 137.95521545410156 139.97593688964844 142.8160400390625 145.04978942871094 147.52529907226562 148.98895263671875 152.41397094726562 153.8777313232422 156.2356719970703 157.58309936523438 157.9785614013672 159.21224975585938 161.20361328125 164.81272888183594 166.1920928955078 168.66268920898438 171.5133514404297 173.06788635253906 175.22642517089844 176.1614990234375 178.39158630371094 178.68824768066406 178.3126678466797 177.71568298339844 176.9786834716797 175.74111938476562 175.00929260253906 173.94737243652344 173.505859375 172.72125244140625 172.0552520751953 168.12124633789062 166.21826171875 160.3849639892578 157.80628967285156 158.46542358398438 160.74745178222656 162.40956115722656 165.38772583007812 166.3495330810547 167.43942260742188 168.15892028808594 168.74668884277344 169.4803009033203 170.37094116210938 171.65200805664062 172.16078186035156 174.07278442382812 175.3348388671875 176.8632354736328 178.1501922607422 178.40313720703125 178.35972595214844 177.87196350097656 177.6466064453125 177.84585571289062 177.84685571289063 179.7466278076172 182.29971313476562 184.67724609375 186.2889862060547 191.1741485595703 195.14044189453125 198.21165466308594 200.45849609375 201.87625122070312 205.41629028320312 206.75404357910156 208.62034606933594 208.40573120117188 210.2667999267578 211.6060028076172 212.87318420410156 217.13665771484375 220.76084899902344 228.7871856689453 232.71263122558594 242.63375854492188 250.53768920898438 256.96630859375 267.4064025878906 270.593505859375 274.948974609375 272.51580810546875 265.8595886230469 268.434814453125 265.4929504394531 262.4647521972656 264.70159912109375 261.1561279296875 257.8453369140625 254.2675018310547 250.22535705566406 243.66954040527344 244.04489135742188 243.33624267578125 240.3517608642578 236.7525634765625 233.9027099609375 231.34498596191406 228.84829711914062 227.67684936523438 226.72430419921875 225.1725311279297 230.1865234375 234.39254760742188 235.2755584716797 237.4126739501953 238.52381896972656 242.73291015625 245.17770385742188 253.79510498046875 260.1513977050781 263.2079772949219 278.91253662109375 285.2962646484375 298.73272705078125 302.706298828125 302.99560546875 302.9112548828125 302.9497985839844 304.42926025390625 304.5032043457031 303.0878601074219 298.5406799316406 292.3321838378906 291.3169860839844 293.44140625 289.4136962890625 284.87255859375 281.83135986328125 281.6139221191406 279.4150695800781 277.4434509277344 276.22882080078125 276.00604248046875 275.2701416015625 275.604736328125 274.4001770019531 273.7059631347656 271.3921813964844 273.0472106933594 272.8651123046875 271.7087097167969 270.048095703125 268.1124572753906 267.202392578125 266.8898010253906 263.72576904296875 263.0480651855469 261.9552307128906 260.9048156738281 260.16192626953125 259.6944274902344 258.74053955078125 258.1836853027344 257.37896728515625 255.22412109375 255.65875244140625 255.32240295410156 254.14479064941406 253.0404815673828 251.373291015625 248.74657440185547
132.18104553222656 131.87754821777344 131.6566162109375 131.19313201904293 131.17770843505855 131.4605712890625 131.86395263671875 131.9947509765625 132.54312133789062 133.27967834472656 133.837890625 134.91587829589844 135.6530303955078 139.31454467773438 141.0054931640625 142.13441467285156 141.0142364501953 148.28675842285156 153.6474609375 153.94337463378906 156.777587890625 158.54693603515625 160.22796630859375 160.4574432373047 160.6005096435547 161.6902618408203 163.40350341796875 167.1856231689453 168.7010955810547 171.54617309570312 173.3265380859375 174.58119201660156 176.6381378173828 177.6019744873047 179.19786071777344 179.285400390625 178.84686279296875 178.21315002441406 177.46571350097656 176.04544067382812 175.49853515625 174.33505249023438 173.94137573242188 173.28709411621094 172.6023406982422 169.35516357421875 167.03750610351562 161.65467834472656 159.1771697998047 160.0020751953125 162.33811950683594 163.6985321044922 166.3635711669922 167.3314666748047 169.2531280517578 169.56649780273438 169.80641174316406 170.5406951904297 171.2526092529297 172.8060760498047 173.08737182617188 174.95506286621094 175.986572265625 177.2803955078125 178.3290252685547 178.84983825683594 179.39663696289062 179.19482421875 178.344482421875 178.9071044921875 179.76795959472656 181.93287658691406 183.64291381835938 186.66305541992188 188.29855346679688 196.7753143310547 198.1581573486328 199.70358276367188 201.8455352783203 203.1844024658203 206.25086975097656 207.56985473632812 207.63072204589844 208.36050415039062 209.57913208007812 210.23802185058594 212.61338806152344 219.26441955566406 223.2326202392578 231.6194610595703 235.4746551513672 243.90060424804688 252.5107879638672 258.6407165527344 266.51483154296875 269.99749755859375 273.2398681640625 266.9310302734375 257.2967834472656 259.1114501953125 263.3318176269531 259.666259765625 257.2794189453125 256.19915771484375 251.62583923339844 247.8337860107422 246.51934814453125 238.33978271484375 235.73443603515625 235.71148681640625 234.06015014648438 231.146728515625 228.87351989746094 227.3928985595703 224.67312622070312 223.840576171875 224.40321350097656 227.89898681640625 231.57371520996094 233.36871337890625 233.17381286621094 237.61361694335938 238.39454650878906 243.53675842285156 247.55557250976562 256.7702331542969 262.2901306152344 270.3866271972656 283.57275390625 289.4892272949219 296.42236328125 298.6093444824219 297.3846740722656 293.1850280761719 294.79473876953125 299.09088134765625 300.36224365234375 297.2701721191406 293.8487854003906 284.292724609375 281.5412902832031 284.0334167480469 280.4335632324219 276.17791748046875 273.77734375 273.17059326171875 273.2987976074219 273.1521301269531 273.1453857421875 273.3200988769531 273.3551025390625 273.1487121582031 272.5773620605469 272.0373840332031 271.8268127441406 270.20855712890625 269.9110107421875 269.61346435546875 267.6778259277344 266.76776123046875 266.4551696777344 263.2911376953125 262.6134338378906 262.2843322753906 263.9142150878906 263.067138671875 262.909423828125 263.51104736328125 263.82568359375 263.88043212890625 261.7221374511719 257.8135986328125 254.8877716064453 253.7101593017578 253.3753204345703 259.2909240722656 260.40936279296875 260.6221008300781
132.0734100341797 131.7760772705078 131.4464569091797 131.20855560302732 131.6975860595703 131.87806701660156 132.3037567138672 132.71566772460938 133.45632934570312 134.18313598632812 134.72247314453125 136.73809814453125 138.42234802246094 142.7355499267578 146.06687927246094 151.23069763183594 147.8435821533203 147.3568572998047 156.1918182373047 157.37396240234375 160.20849609375 161.23687744140625 162.3199462890625 162.8666534423828 163.15191650390625 164.36239624023438 165.52915954589844 169.0811309814453 170.5994415283203 172.9725799560547 174.6062469482422 175.76950073242188 177.7947998046875 178.58837890625 179.55474853515625 179.3859405517578 178.580322265625 177.75515747070312 177.12684631347656 176.0277099609375 175.4840850830078 174.4135284423828 174.02752685546875 173.29534912109375 172.4690399169922 169.5374298095703 167.08998107910156 162.87974548339844 160.94390869140625 161.9503936767578 164.0791015625 165.14410400390625 168.04017639160156 169.66969299316406 171.11326599121094 170.82052612304688 170.81039428710938 171.46258544921875 171.95762634277344 173.5267333984375 174.10992431640625 175.65234375 176.6401824951172 177.7513427734375 178.0407257080078 178.04347229003906 178.1587371826172 178.0038299560547 179.81307983398438 180.4783935546875 181.84104919433594 183.60885620117188 185.15847778320312 188.2217559814453 189.43353271484375 198.02537536621094 200.41920471191406 200.98239135742188 201.97439575195312 202.4866485595703 207.9854278564453 208.5203094482422 206.9822540283203 207.4488525390625 208.18467712402344 208.20252990722656 210.103515625 219.87828063964844 223.63040161132812 231.86058044433594 237.03724670410156 246.4079132080078 253.5836639404297 257.78192138671875 263.65472412109375 265.8184509277344 269.24468994140625 266.2057189941406 254.11451721191406 249.5357666015625 258.1027526855469 258.4341125488281 250.4071807861328 249.18313598632812 245.20518493652344 240.4357147216797 239.68011474609375 237.7729949951172 233.0552215576172 229.50111389160156 228.665771484375 226.7480010986328 225.21286010742188 224.26678466796875 220.8447723388672 219.99496459960938 225.921630859375 227.07720947265625 230.4454803466797 231.65948486328125 232.65904235839844 237.61148071289062 239.93588256835938 245.74478149414062 251.54891967773438 256.52752685546875 267.3863525390625 275.5738830566406 287.5790710449219 288.3316345214844 292.28271484375 292.87213134765625 293.3598937988281 289.25518798828125 287.93450927734375 293.6558532714844 294.946533203125 290.46868896484375 286.99822998046875 279.6194763183594 273.345947265625 272.529296875 271.41009521484375 271.0305480957031 270.755548828125 270.756548828125 270.757548828125 270.9127502441406 271.10943603515625 271.53955078125 271.7277526855469 271.6844482421875 271.37158203125 270.9727102050781 270.9717102050781 270.6431884765625 270.717041015625 271.0088806152344 271.0080871582031 271.0918884277344 271.28094482421875 271.33062744140625 270.218994140625 269.2970886230469 267.7380065917969 267.6924133300781 268.2145080566406 268.3592834472656 267.6000061035156 263.138916015625 261.75738525390625 261.36090087890625 261.3925476074219 262.2341613769531 263.9700622558594 264.71343994140625 265.5152893066406 265.646240234375
131.9694061279297 131.69142150878906 131.43490600585938 131.2239791870117 132.012939453125 132.28355407714844 133.02593994140625 133.46347045898438 134.17623901367188 134.94790649414062 136.19549560546875 140.8136444091797 142.266845703125 147.45086669921875 151.38893127441406 154.87643432617188 154.1604461669922 149.41485595703125 157.714111328125 159.2989501953125 162.15689086914062 163.22117614746094 164.5282745361328 165.26736450195312 165.45849609375 166.00155639648438 167.28164672851562 170.65682983398438 172.12722778320312 174.1551513671875 175.6604461669922 176.80409240722656 178.65045166015625 179.43783569335938 179.72128295898438 179.0843505859375 177.89549255371094 177.02474975585938 176.45797729492188 175.4250946044922 174.92759704589844 174.04820251464844 173.59957885742188 172.6562042236328 171.98414611816406 169.08380126953125 167.0067596435547 163.71104431152344 162.43389892578125 164.2455291748047 166.12591552734375 167.053955078125 170.16378784179688 171.7139129638672 172.70547485351562 172.35549926757812 172.1732635498047 172.49542236328125 173.08270263671875 174.14564514160156 174.82583618164062 175.8730010986328 176.3889617919922 177.32151794433594 177.8326416015625 177.83584594726562 177.90487670898438 178.075439453125 180.6486358642578 182.20005798339844 183.12818908691406 184.10806274414062 185.87184143066406 189.5748291015625 194.5452423095703 200.46224975585938 202.48416137695312 203.03904724121094 204.21681213378906 204.95855712890625 205.88360595703125 206.1180419921875 205.87046813964844 206.3458251953125 206.82493591308594 207.55442810058594 209.57469177246094 220.0594024658203 223.61448669433594 233.31045532226562 238.67640686035156 247.52761840820312 253.05723571777344 251.02769470214844 258.1392517089844 257.4926452636719 261.0491638183594 258.0422668457031 254.86460876464844 247.23263549804688 249.67987060546875 250.13307189941406 244.19271850585938 242.28826904296875 240.2694091796875 235.9938201904297 233.74830627441406 232.0972137451172 232.8508758544922 226.98049926757812 225.0834197998047 224.16615295410156 222.61854553222656 221.71359252929688 219.47071838378906 223.4734649658203 228.7547149658203 230.11732482910156 232.33799743652344 234.17466735839844 235.02679443359375 238.88381958007812 242.86834716796875 249.9722137451172 253.8411865234375 258.60662841796875 270.7486877441406 276.3154296875 285.7624206542969 288.19049072265625 289.87841796875 289.0838317871094 287.6792907714844 287.20068359375 283.44952392578125 287.2691955566406 289.2124938964844 284.9342346191406 280.1362609863281 274.1680603027344 270.751548828125 270.752548828125 270.753548828125 270.754548828125 270.755548828125 270.756548828125 270.757548828125 270.758548828125 270.759548828125 270.8999328613281 270.941162109375 270.942162109375 271.137451171875 271.82086181640625 271.28887939453125 272.10321044921875 272.8734436035156 273.3544006347656 273.271484375 273.6164245605469 274.622802734375 274.91094970703125 275.20843505859375 274.8536376953125 273.38671875 273.22637939453125 273.52593994140625 271.9427795410156 269.2830810546875 266.35546875 265.9169616699219 266.7303771972656 268.1787414550781 269.4046630859375 270.453369140625 270.9351501464844 271.5325927734375 271.620849609375
131.86093139648438 131.67140197753906 131.2394027709961 131.80609130859375 132.43678283691406 132.6971435546875 133.5516357421875 134.0995635986328 134.8317413330078 137.3419647216797 141.21597290039062 145.4897918701172 146.5204315185547 151.86839294433594 154.4419708251953 156.03097534179688 154.12940979003906 153.16732788085938 159.8266143798828 161.30706787109375 164.35272216796875 165.53851318359375 166.63113403320312 167.51937866210938 167.79067993164062 168.7427978515625 169.5305633544922 172.2547149658203 173.38949584960938 175.27694702148438 176.68621826171875 177.75775146484375 179.81529235839844 180.5659942626953 180.31410217285156 178.95326232910156 177.56533813476562 176.78564453125 176.04910278320312 174.40475463867188 173.7001953125 172.74301147460938 172.52220153808594 171.90838623046875 171.16920471191406 168.4967803955078 167.01953125 164.61021423339844 164.55735778808594 166.3050537109375 167.98822021484375 169.03126525878906 171.5897216796875 172.53671264648438 173.7833251953125 173.89431762695312 173.85552978515625 174.1224822998047 174.4010772705078 175.22396850585938 175.4759063720703 176.43702697753906 176.83126831054688 177.7707977294922 178.3386688232422 177.89413452148438 178.13916015625 178.5677490234375 181.1935272216797 182.9982452392578 184.39749145507812 185.56832885742188 186.06309509277344 192.81427001953125 196.8042755126953 201.10696411132812 202.24398803710938 203.55007934570312 206.79376220703125 207.8590087890625 204.5460662841797 203.87449645996094 204.37179565429688 204.33274841308594 205.80447387695312 207.0370635986328 209.30506896972656 219.98831176757812 223.2101287841797 233.6605682373047 238.87171936035156 247.9104766845703 252.6453857421875 250.81919860839844 249.9996795654297 250.64501953125 252.39410400390625 249.94773864746094 249.4397430419922 247.3199005126953 240.99908447265625 241.8325653076172 239.58155822753906 237.9279327392578 235.4281768798828 231.4202423095703 229.97225952148438 227.60739135742188 228.24693298339844 225.87510681152344 222.75216674804688 221.88851928710938 220.60675048828125 218.8516845703125 222.59689331054688 226.330322265625 231.49346923828125 233.0138397216797 231.77476501464844 234.50860595703125 237.8539581298828 243.4523468017578 246.80966186523438 252.96763610839844 255.86741638183594 263.53955078125 275.17572021484375 280.3294677734375 288.13848876953125 288.288330078125 288.29522705078125 285.9666442871094 284.1090393066406 282.8592834472656 282.7247314453125 275.27587890625 275.0762023925781 276.5279846191406 273.8289794921875 270.750548828125 270.751548828125 270.752548828125 270.753548828125 270.754548828125 270.755548828125 270.756548828125 271.1612548828125 271.5067443847656 271.9659423828125 272.0953369140625 272.89532470703125 273.02392578125 274.7940368652344 279.85101318359375 280.5938720703125 282.156494140625 283.1096496582031 284.2906188964844 283.2737121582031 282.90771484375 283.90740966796875 283.6672668457031 281.53826904296875 280.17352294921875 280.15045166015625 280.52301025390625 279.9669189453125 277.2309265136719 275.8009948730469 272.1481628417969 272.0274353027344 272.7440490722656 273.1704406738281 273.75408935546875 274.4634704589844 275.0313415527344 276.50543212890625 276.82537841796875
